# 3D point list with one line of data per point:
164 -0.7071695963541685 -0.1 -7.766668904622396 128 128 128 0
165 -0.7071695963541685 -0.1 -7.666668904622396 128 128 128 0
166 -0.7071695963541685 0.0 -7.866668904622395 128 128 128 0
167 -0.7071695963541685 0.0 -7.766668904622396 128 128 128 0
168 -0.7071695963541685 0.0 -7.666668904622396 128 128 128 0
169 -0.7071695963541685 0.1 -7.866668904622395 128 128 128 0
170 -0.7071695963541685 0.1 -7.766668904622396 128 128 128 0
171 -0.7071695963541685 0.1 -7.666668904622396 128 128 128 0
172 -0.6071695963541686 -0.1 -7.866668904622395 128 128 128 0
173 -0.6071695963541686 -0.1 -7.766668904622396 128 128 128 0
174 -0.6071695963541686 -0.1 -7.666668904622396 128 128 128 0
175 -0.6071695963541686 0.0 -7.866668904622395 128 128 128 0
176 -0.6071695963541686 0.0 -7.766668904622396 128 128 128 0
177 -0.6071695963541686 0.0 -7.666668904622396 128 128 128 0
178 -0.6071695963541686 0.1 -7.866668904622395 128 128 128 0
179 -0.6071695963541686 0.1 -7.766668904622396 128 128 128 0
180 -0.6071695963541686 0.1 -7.666668904622396 128 128 128 0
181 -0.5071695963541686 -0.1 -7.866668904622395 128 128 128 0
182 -0.5071695963541686 -0.1 -7.766668904622396 128 128 128 0
183 -0.5071695963541686 -0.1 -7.666668904622396 128 128 128 0
184 -0.5071695963541686 0.0 -7.866668904622395 128 128 128 0
185 -0.5071695963541686 0.0 -7.766668904622396 128 128 128 0
186 -0.5071695963541686 0.0 -7.666668904622396 128 128 128 0
187 -0.5071695963541686 0.1 -7.866668904622395 128 128 128 0
188 -0.5071695963541686 0.1 -7.766668904622396 128 128 128 0
189 -0.5071695963541686 0.1 -7.666668904622396 128 128 128 0
190 -0.7071695963541685 -0.1 -8.116670811971028 128 128 128 0
191 -0.7071695963541685 -0.1 -8.016670811971029 128 128 128 0
192 -0.7071695963541685 -0.1 -7.916670811971029 128 128 128 0
193 -0.7071695963541685 0.0 -8.116670811971028 128 128 128 0
194 -0.7071695963541685 0.0 -8.016670811971029 128 128 128 0
195 -0.7071695963541685 0.0 -7.916670811971029 128 128 128 0
196 -0.7071695963541685 0.1 -8.116670811971028 128 128 128 0
197 -0.7071695963541685 0.1 -8.016670811971029 128 128 128 0
198 -0.7071695963541685 0.1 -7.916670811971029 128 128 128 0
199 -0.6071695963541686 -0.1 -8.116670811971028 128 128 128 0
200 -0.6071695963541686 -0.1 -8.016670811971029 128 128 128 0
201 -0.6071695963541686 -0.1 -7.916670811971029 128 128 128 0
202 -0.6071695963541686 0.0 -8.116670811971028 128 128 128 0
203 -0.6071695963541686 0.0 -8.016670811971029 128 128 128 0
204 -0.6071695963541686 0.0 -7.916670811971029 128 128 128 0
205 -0.6071695963541686 0.1 -8.116670811971028 128 128 128 0
206 -0.6071695963541686 0.1 -8.016670811971029 128 128 128 0
207 -0.6071695963541686 0.1 -7.916670811971029 128 128 128 0
208 -0.5071695963541686 -0.1 -8.116670811971028 128 128 128 0
209 -0.5071695963541686 -0.1 -8.016670811971029 128 128 128 0
210 -0.5071695963541686 -0.1 -7.916670811971029 128 128 128 0
211 -0.5071695963541686 0.0 -8.116670811971028 128 128 128 0
212 -0.5071695963541686 0.0 -8.016670811971029 128 128 128 0
213 -0.5071695963541686 0.0 -7.916670811971029 128 128 128 0
214 -0.5071695963541686 0.1 -8.116670811971028 128 128 128 0
215 -0.5071695963541686 0.1 -8.016670811971029 128 128 128 0
216 -0.5071695963541686 0.1 -7.916670811971029 128 128 128 0
217 -0.7071695963541685 -0.1 -8.144448801676432 128 128 128 0
218 -0.7071695963541685 -0.1 -8.044448801676433 128 128 128 0
219 -0.7071695963541685 -0.1 -7.944448801676433 128 128 128 0
220 -0.7071695963541685 0.0 -8.144448801676432 128 128 128 0
221 -0.7071695963541685 0.0 -8.044448801676433 128 128 128 0
222 -0.7071695963541685 0.0 -7.944448801676433 128 128 128 0
223 -0.7071695963541685 0.1 -8.144448801676432 128 128 128 0
224 -0.7071695963541685 0.1 -8.044448801676433 128 128 128 0
225 -0.7071695963541685 0.1 -7.944448801676433 128 128 128 0
226 -0.6071695963541686 -0.1 -8.144448801676432 128 128 128 0
227 -0.6071695963541686 -0.1 -8.044448801676433 128 128 128 0
228 -0.6071695963541686 -0.1 -7.944448801676433 128 128 128 0
229 -0.6071695963541686 0.0 -8.144448801676432 128 128 128 0
230 -0.6071695963541686 0.0 -8.044448801676433 128 128 128 0
231 -0.6071695963541686 0.0 -7.944448801676433 128 128 128 0
232 -0.6071695963541686 0.1 -8.144448801676432 128 128 128 0
233 -0.6071695963541686 0.1 -8.044448801676433 128 128 128 0
234 -0.6071695963541686 0.1 -7.944448801676433 128 128 128 0
235 -0.5071695963541686 -0.1 -8.144448801676432 128 128 128 0
236 -0.5071695963541686 -0.1 -8.044448801676433 128 128 128 0
237 -0.5071695963541686 -0.1 -7.944448801676433 128 128 128 0
238 -0.5071695963541686 0.0 -8.144448801676432 128 128 128 0
239 -0.5071695963541686 0.0 -8.044448801676433 128 128 128 0
240 -0.5071695963541686 0.0 -7.944448801676433 128 128 128 0
241 -0.5071695963541686 0.1 -8.144448801676432 128 128 128 0
242 -0.5071695963541686 0.1 -8.044448801676433 128 128 128 0
243 -0.5071695963541686 0.1 -7.944448801676433 128 128 128 0
244 -0.7071695963541685 -0.1 -7.866668904622395 128 128 128 0
245 -0.7071695963541685 -0.1 -7.766668904622396 128 128 128 0
246 -0.7071695963541685 -0.1 -7.666668904622396 128 128 128 0
247 -0.7071695963541685 0.0 -7.866668904622395 128 128 128 0
248 -0.7071695963541685 0.0 -7.766668904622396 128 128 128 0
249 -0.7071695963541685 0.0 -7.666668904622396 128 128 128 0
250 -0.7071695963541685 0.1 -7.866668904622395 128 128 128 0
251 -0.7071695963541685 0.1 -7.766668904622396 128 128 128 0
252 -0.7071695963541685 0.1 -7.666668904622396 128 128 128 0
253 -0.6071695963541686 -0.1 -7.866668904622395 128 128 128 0
254 -0.6071695963541686 -0.1 -7.766668904622396 128 128 128 0
255 -0.6071695963541686 -0.1 -7.666668904622396 128 128 128 0
256 -0.6071695963541686 0.0 -7.866668904622395 128 128 128 0
257 -0.6071695963541686 0.0 -7.766668904622396 128 128 128 0
258 -0.6071695963541686 0.0 -7.666668904622396 128 128 128 0
259 -0.6071695963541686 0.1 -7.866668904622395 128 128 128 0
260 -0.6071695963541686 0.1 -7.766668904622396 128 128 128 0
261 -0.6071695963541686 0.1 -7.666668904622396 128 128 128 0
262 -0.5071695963541686 -0.1 -7.866668904622395 128 128 128 0
263 -0.5071695963541686 -0.1 -7.766668904622396 128 128 128 0
264 -0.5071695963541686 -0.1 -7.666668904622396 128 128 128 0
265 -0.5071695963541686 0.0 -7.866668904622395 128 128 128 0
266 -0.5071695963541686 0.0 -7.766668904622396 128 128 128 0
267 -0.5071695963541686 0.0 -7.666668904622396 128 128 128 0
268 -0.5071695963541686 0.1 -7.866668904622395 128 128 128 0
269 -0.5071695963541686 0.1 -7.766668904622396 128 128 128 0
270 -0.5071695963541686 0.1 -7.666668904622396 128 128 128 0
271 -0.7071695963541685 -0.1 -7.616666997273763 128 128 128 0
272 -0.7071695963541685 -0.1 -7.516666997273763 128 128 128 0
273 -0.7071695963541685 -0.1 -7.416666997273763 128 128 128 0
274 -0.7071695963541685 0.0 -7.616666997273763 128 128 128 0
275 -0.7071695963541685 0.0 -7.516666997273763 128 128 128 0
276 -0.7071695963541685 0.0 -7.416666997273763 128 128 128 0
277 -0.7071695963541685 0.1 -7.616666997273763 128 128 128 0
278 -0.7071695963541685 0.1 -7.516666997273763 128 128 128 0
279 -0.7071695963541685 0.1 -7.416666997273763 128 128 128 0
280 -0.6071695963541686 -0.1 -7.616666997273763 128 128 128 0
281 -0.6071695963541686 -0.1 -7.516666997273763 128 128 128 0
282 -0.6071695963541686 -0.1 -7.416666997273763 128 128 128 0
283 -0.6071695963541686 0.0 -7.616666997273763 128 128 128 0
284 -0.6071695963541686 0.0 -7.516666997273763 128 128 128 0
285 -0.6071695963541686 0.0 -7.416666997273763 128 128 128 0
286 -0.6071695963541686 0.1 -7.616666997273763 128 128 128 0
287 -0.6071695963541686 0.1 -7.516666997273763 128 128 128 0
288 -0.6071695963541686 0.1 -7.416666997273763 128 128 128 0
289 -0.5071695963541686 -0.1 -7.616666997273763 128 128 128 0
290 -0.5071695963541686 -0.1 -7.516666997273763 128 128 128 0
291 -0.5071695963541686 -0.1 -7.416666997273763 128 128 128 0
292 -0.5071695963541686 0.0 -7.616666997273763 128 128 128 0
293 -0.5071695963541686 0.0 -7.516666997273763 128 128 128 0
294 -0.5071695963541686 0.0 -7.416666997273763 128 128 128 0
295 -0.5071695963541686 0.1 -7.616666997273763 128 128 128 0
296 -0.5071695963541686 0.1 -7.516666997273763 128 128 128 0
297 -0.5071695963541686 0.1 -7.416666997273763 128 128 128 0
298 -0.7071695963541685 -0.1 -7.36666508992513 128 128 128 0
299 -0.7071695963541685 -0.1 -7.26666508992513 128 128 128 0
300 -0.7071695963541685 -0.1 -7.1666650899251305 128 128 128 0
301 -0.7071695963541685 0.0 -7.36666508992513 128 128 128 0
302 -0.7071695963541685 0.0 -7.26666508992513 128 128 128 0
303 -0.7071695963541685 0.0 -7.1666650899251305 128 128 128 0
304 -0.7071695963541685 0.1 -7.36666508992513 128 128 128 0
305 -0.7071695963541685 0.1 -7.26666508992513 128 128 128 0
306 -0.7071695963541685 0.1 -7.1666650899251305 128 128 128 0
307 -0.6071695963541686 -0.1 -7.36666508992513 128 128 128 0
308 -0.6071695963541686 -0.1 -7.26666508992513 128 128 128 0
309 -0.6071695963541686 -0.1 -7.1666650899251305 128 128 128 0
310 -0.6071695963541686 0.0 -7.36666508992513 128 128 128 0
311 -0.6071695963541686 0.0 -7.26666508992513 128 128 128 0
312 -0.6071695963541686 0.0 -7.1666650899251305 128 128 128 0
313 -0.6071695963541686 0.1 -7.36666508992513 128 128 128 0
314 -0.6071695963541686 0.1 -7.26666508992513 128 128 128 0
315 -0.6071695963541686 0.1 -7.1666650899251305 128 128 128 0
316 -0.5071695963541686 -0.1 -7.36666508992513 128 128 128 0
317 -0.5071695963541686 -0.1 -7.26666508992513 128 128 128 0
318 -0.5071695963541686 -0.1 -7.1666650899251305 128 128 128 0
319 -0.5071695963541686 0.0 -7.36666508992513 128 128 128 0
320 -0.5071695963541686 0.0 -7.26666508992513 128 128 128 0
321 -0.5071695963541686 0.0 -7.1666650899251305 128 128 128 0
322 -0.5071695963541686 0.1 -7.36666508992513 128 128 128 0
323 -0.5071695963541686 0.1 -7.26666508992513 128 128 128 0
324 -0.5071695963541686 0.1 -7.1666650899251305 128 128 128 0
325 -0.7071695963541685 -0.1 -7.116663182576497 128 128 128 0
326 -0.7071695963541685 -0.1 -7.016663182576497 128 128 128 0
327 -0.7071695963541685 -0.1 -6.916663182576498 128 128 128 0
328 -0.7071695963541685 0.0 -7.116663182576497 128 128 128 0
329 -0.7071695963541685 0.0 -7.016663182576497 128 128 128 0
330 -0.7071695963541685 0.0 -6.916663182576498 128 128 128 0
331 -0.7071695963541685 0.1 -7.116663182576497 128 128 128 0
332 -0.7071695963541685 0.1 -7.016663182576497 128 128 128 0
333 -0.7071695963541685 0.1 -6.916663182576498 128 128 128 0
334 -0.6071695963541686 -0.1 -7.116663182576497 128 128 128 0
335 -0.6071695963541686 -0.1 -7.016663182576497 128 128 128 0
336 -0.6071695963541686 -0.1 -6.916663182576498 128 128 128 0
337 -0.6071695963541686 0.0 -7.116663182576497 128 128 128 0
338 -0.6071695963541686 0.0 -7.016663182576497 128 128 128 0
339 -0.6071695963541686 0.0 -6.916663182576498 128 128 128 0
340 -0.6071695963541686 0.1 -7.116663182576497 128 128 128 0
341 -0.6071695963541686 0.1 -7.016663182576497 128 128 128 0
342 -0.6071695963541686 0.1 -6.916663182576498 128 128 128 0
343 -0.5071695963541686 -0.1 -7.116663182576497 128 128 128 0
344 -0.5071695963541686 -0.1 -7.016663182576497 128 128 128 0
345 -0.5071695963541686 -0.1 -6.916663182576498 128 128 128 0
346 -0.5071695963541686 0.0 -7.116663182576497 128 128 128 0
347 -0.5071695963541686 0.0 -7.016663182576497 128 128 128 0
348 -0.5071695963541686 0.0 -6.916663182576498 128 128 128 0
349 -0.5071695963541686 0.1 -7.116663182576497 128 128 128 0
350 -0.5071695963541686 0.1 -7.016663182576497 128 128 128 0
351 -0.5071695963541686 0.1 -6.916663182576498 128 128 128 0
352 -0.7071695963541685 -0.1 -6.866661275227864 128 128 128 0
353 -0.7071695963541685 -0.1 -6.7666612752278645 128 128 128 0
354 -0.7071695963541685 -0.1 -6.666661275227865 128 128 128 0
355 -0.7071695963541685 0.0 -6.866661275227864 128 128 128 0
356 -0.7071695963541685 0.0 -6.7666612752278645 128 128 128 0
357 -0.7071695963541685 0.0 -6.666661275227865 128 128 128 0
358 -0.7071695963541685 0.1 -6.866661275227864 128 128 128 0
359 -0.7071695963541685 0.1 -6.7666612752278645 128 128 128 0
360 -0.7071695963541685 0.1 -6.666661275227865 128 128 128 0
361 -0.6071695963541686 -0.1 -6.866661275227864 128 128 128 0
362 -0.6071695963541686 -0.1 -6.7666612752278645 128 128 128 0
363 -0.6071695963541686 -0.1 -6.666661275227865 128 128 128 0
364 -0.6071695963541686 0.0 -6.866661275227864 128 128 128 0
365 -0.6071695963541686 0.0 -6.7666612752278645 128 128 128 0
366 -0.6071695963541686 0.0 -6.666661275227865 128 128 128 0
367 -0.6071695963541686 0.1 -6.866661275227864 128 128 128 0
368 -0.6071695963541686 0.1 -6.7666612752278645 128 128 128 0
369 -0.6071695963541686 0.1 -6.666661275227865 128 128 128 0
370 -0.5071695963541686 -0.1 -6.866661275227864 128 128 128 0
371 -0.5071695963541686 -0.1 -6.7666612752278645 128 128 128 0
372 -0.5071695963541686 -0.1 -6.666661275227865 128 128 128 0
373 -0.5071695963541686 0.0 -6.866661275227864 128 128 128 0
374 -0.5071695963541686 0.0 -6.7666612752278645 128 128 128 0
375 -0.5071695963541686 0.0 -6.666661275227865 128 128 128 0
376 -0.5071695963541686 0.1 -6.866661275227864 128 128 128 0
377 -0.5071695963541686 0.1 -6.7666612752278645 128 128 128 0
378 -0.5071695963541686 0.1 -6.666661275227865 128 128 128 0
379 -0.7071695963541685 -0.1 -6.616659367879231 128 128 128 0
380 -0.7071695963541685 -0.1 -6.516659367879232 128 128 128 0
381 -0.7071695963541685 -0.1 -6.416659367879232 128 128 128 0
382 -0.7071695963541685 0.0 -6.616659367879231 128 128 128 0
383 -0.7071695963541685 0.0 -6.516659367879232 128 128 128 0
384 -0.7071695963541685 0.0 -6.416659367879232 128 128 128 0
385 -0.7071695963541685 0.1 -6.616659367879231 128 128 128 0
386 -0.7071695963541685 0.1 -6.516659367879232 128 128 128 0
387 -0.7071695963541685 0.1 -6.416659367879232 128 128 128 0
388 -0.6071695963541686 -0.1 -6.616659367879231 128 128 128 0
389 -0.6071695963541686 -0.1 -6.516659367879232 128 128 128 0
390 -0.6071695963541686 -0.1 -6.416659367879232 128 128 128 0
391 -0.6071695963541686 0.0 -6.616659367879231 128 128 128 0
392 -0.6071695963541686 0.0 -6.516659367879232 128 128 128 0
393 -0.6071695963541686 0.0 -6.416659367879232 128 128 128 0
394 -0.6071695963541686 0.1 -6.616659367879231 128 128 128 0
395 -0.6071695963541686 0.1 -6.516659367879232 128 128 128 0
396 -0.6071695963541686 0.1 -6.416659367879232 128 128 128 0
397 -0.5071695963541686 -0.1 -6.616659367879231 128 128 128 0
398 -0.5071695963541686 -0.1 -6.516659367879232 128 128 128 0
399 -0.5071695963541686 -0.1 -6.416659367879232 128 128 128 0
400 -0.5071695963541686 0.0 -6.616659367879231 128 128 128 0
401 -0.5071695963541686 0.0 -6.516659367879232 128 128 128 0
402 -0.5071695963541686 0.0 -6.416659367879232 128 128 128 0
403 -0.5071695963541686 0.1 -6.616659367879231 128 128 128 0
404 -0.5071695963541686 0.1 -6.516659367879232 128 128 128 0
405 -0.5071695963541686 0.1 -6.416659367879232 128 128 128 0
406 -0.7071695963541685 -0.1 -6.338879470825195 128 128 128 0
407 -0.7071695963541685 -0.1 -6.238879470825196 128 128 128 0
408 -0.7071695963541685 -0.1 -6.138879470825196 128 128 128 0
409 -0.7071695963541685 0.0 -6.338879470825195 128 128 128 0
410 -0.7071695963541685 0.0 -6.238879470825196 128 128 128 0
411 -0.7071695963541685 0.0 -6.138879470825196 128 128 128 0
412 -0.7071695963541685 0.1 -6.338879470825195 128 128 128 0
413 -0.7071695963541685 0.1 -6.238879470825196 128 128 128 0
414 -0.7071695963541685 0.1 -6.138879470825196 128 128 128 0
415 -0.6071695963541686 -0.1 -6.338879470825195 128 128 128 0
416 -0.6071695963541686 -0.1 -6.238879470825196 128 128 128 0
417 -0.6071695963541686 -0.1 -6.138879470825196 128 128 128 0
418 -0.6071695963541686 0.0 -6.338879470825195 128 128 128 0
419 -0.6071695963541686 0.0 -6.238879470825196 128 128 128 0
420 -0.6071695963541686 0.0 -6.138879470825196 128 128 128 0
421 -0.6071695963541686 0.1 -6.338879470825195 128 128 128 0
422 -0.6071695963541686 0.1 -6.238879470825196 128 128 128 0
423 -0.6071695963541686 0.1 -6.138879470825196 128 128 128 0
424 -0.5071695963541686 -0.1 -6.338879470825195 128 128 128 0
425 -0.5071695963541686 -0.1 -6.238879470825196 128 128 128 0
426 -0.5071695963541686 -0.1 -6.138879470825196 128 128 128 0
427 -0.5071695963541686 0.0 -6.338879470825195 128 128 128 0
428 -0.5071695963541686 0.0 -6.238879470825196 128 128 128 0
429 -0.5071695963541686 0.0 -6.138879470825196 128 128 128 0
430 -0.5071695963541686 0.1 -6.338879470825195 128 128 128 0
431 -0.5071695963541686 0.1 -6.238879470825196 128 128 128 0
432 -0.5071695963541686 0.1 -6.138879470825196 128 128 128 0
433 -0.7071695963541685 -0.1 -6.088877563476562 128 128 128 0
434 -0.7071695963541685 -0.1 -5.988877563476563 128 128 128 0
435 -0.7071695963541685 -0.1 -5.888877563476563 128 128 128 0
436 -0.7071695963541685 0.0 -6.088877563476562 128 128 128 0
437 -0.7071695963541685 0.0 -5.988877563476563 128 128 128 0
438 -0.7071695963541685 0.0 -5.888877563476563 128 128 128 0
439 -0.7071695963541685 0.1 -6.088877563476562 128 128 128 0
440 -0.7071695963541685 0.1 -5.988877563476563 128 128 128 0
441 -0.7071695963541685 0.1 -5.888877563476563 128 128 128 0
442 -0.6071695963541686 -0.1 -6.088877563476562 128 128 128 0
443 -0.6071695963541686 -0.1 -5.988877563476563 128 128 128 0
444 -0.6071695963541686 -0.1 -5.888877563476563 128 128 128 0
445 -0.6071695963541686 0.0 -6.088877563476562 128 128 128 0
446 -0.6071695963541686 0.0 -5.988877563476563 128 128 128 0
447 -0.6071695963541686 0.0 -5.888877563476563 128 128 128 0
448 -0.6071695963541686 0.1 -6.088877563476562 128 128 128 0
449 -0.6071695963541686 0.1 -5.988877563476563 128 128 128 0
450 -0.6071695963541686 0.1 -5.888877563476563 128 128 128 0
451 -0.5071695963541686 -0.1 -6.088877563476562 128 128 128 0
452 -0.5071695963541686 -0.1 -5.988877563476563 128 128 128 0
453 -0.5071695963541686 -0.1 -5.888877563476563 128 128 128 0
454 -0.5071695963541686 0.0 -6.088877563476562 128 128 128 0
455 -0.5071695963541686 0.0 -5.988877563476563 128 128 128 0
456 -0.5071695963541686 0.0 -5.888877563476563 128 128 128 0
457 -0.5071695963541686 0.1 -6.088877563476562 128 128 128 0
458 -0.5071695963541686 0.1 -5.988877563476563 128 128 128 0
459 -0.5071695963541686 0.1 -5.888877563476563 128 128 128 0
460 -0.7071695963541685 -0.1 -5.83887565612793 128 128 128 0
461 -0.7071695963541685 -0.1 -5.73887565612793 128 128 128 0
462 -0.7071695963541685 -0.1 -5.63887565612793 128 128 128 0
463 -0.7071695963541685 0.0 -5.83887565612793 128 128 128 0
464 -0.7071695963541685 0.0 -5.73887565612793 128 128 128 0
465 -0.7071695963541685 0.0 -5.63887565612793 128 128 128 0
466 -0.7071695963541685 0.1 -5.83887565612793 128 128 128 0
467 -0.7071695963541685 0.1 -5.73887565612793 128 128 128 0
468 -0.7071695963541685 0.1 -5.63887565612793 128 128 128 0
469 -0.6071695963541686 -0.1 -5.83887565612793 128 128 128 0
470 -0.6071695963541686 -0.1 -5.73887565612793 128 128 128 0
471 -0.6071695963541686 -0.1 -5.63887565612793 128 128 128 0
472 -0.6071695963541686 0.0 -5.83887565612793 128 128 128 0
473 -0.6071695963541686 0.0 -5.73887565612793 128 128 128 0
474 -0.6071695963541686 0.0 -5.63887565612793 128 128 128 0
475 -0.6071695963541686 0.1 -5.83887565612793 128 128 128 0
476 -0.6071695963541686 0.1 -5.73887565612793 128 128 128 0
477 -0.6071695963541686 0.1 -5.63887565612793 128 128 128 0
478 -0.5071695963541686 -0.1 -5.83887565612793 128 128 128 0
479 -0.5071695963541686 -0.1 -5.73887565612793 128 128 128 0
480 -0.5071695963541686 -0.1 -5.63887565612793 128 128 128 0
481 -0.5071695963541686 0.0 -5.83887565612793 128 128 128 0
482 -0.5071695963541686 0.0 -5.73887565612793 128 128 128 0
483 -0.5071695963541686 0.0 -5.63887565612793 128 128 128 0
484 -0.5071695963541686 0.1 -5.83887565612793 128 128 128 0
485 -0.5071695963541686 0.1 -5.73887565612793 128 128 128 0
486 -0.5071695963541686 0.1 -5.63887565612793 128 128 128 0
487 -0.7071695963541685 -0.1 -5.588873748779297 128 128 128 0
488 -0.7071695963541685 -0.1 -5.488873748779297 128 128 128 0
489 -0.7071695963541685 -0.1 -5.3888737487792975 128 128 128 0
490 -0.7071695963541685 0.0 -5.588873748779297 128 128 128 0
491 -0.7071695963541685 0.0 -5.488873748779297 128 128 128 0
492 -0.7071695963541685 0.0 -5.3888737487792975 128 128 128 0
493 -0.7071695963541685 0.1 -5.588873748779297 128 128 128 0
494 -0.7071695963541685 0.1 -5.488873748779297 128 128 128 0
495 -0.7071695963541685 0.1 -5.3888737487792975 128 128 128 0
496 -0.6071695963541686 -0.1 -5.588873748779297 128 128 128 0
497 -0.6071695963541686 -0.1 -5.488873748779297 128 128 128 0
498 -0.6071695963541686 -0.1 -5.3888737487792975 128 128 128 0
499 -0.6071695963541686 0.0 -5.588873748779297 128 128 128 0
500 -0.6071695963541686 0.0 -5.488873748779297 128 128 128 0
501 -0.6071695963541686 0.0 -5.3888737487792975 128 128 128 0
502 -0.6071695963541686 0.1 -5.588873748779297 128 128 128 0
503 -0.6071695963541686 0.1 -5.488873748779297 128 128 128 0
504 -0.6071695963541686 0.1 -5.3888737487792975 128 128 128 0
505 -0.5071695963541686 -0.1 -5.588873748779297 128 128 128 0
506 -0.5071695963541686 -0.1 -5.488873748779297 128 128 128 0
507 -0.5071695963541686 -0.1 -5.3888737487792975 128 128 128 0
508 -0.5071695963541686 0.0 -5.588873748779297 128 128 128 0
509 -0.5071695963541686 0.0 -5.488873748779297 128 128 128 0
510 -0.5071695963541686 0.0 -5.3888737487792975 128 128 128 0
511 -0.5071695963541686 0.1 -5.588873748779297 128 128 128 0
512 -0.5071695963541686 0.1 -5.488873748779297 128 128 128 0
513 -0.5071695963541686 0.1 -5.3888737487792975 128 128 128 0
514 -0.7071695963541685 -0.1 -5.338871841430664 128 128 128 0
515 -0.7071695963541685 -0.1 -5.238871841430664 128 128 128 0
516 -0.7071695963541685 -0.1 -5.138871841430665 128 128 128 0
517 -0.7071695963541685 0.0 -5.338871841430664 128 128 128 0
518 -0.7071695963541685 0.0 -5.238871841430664 128 128 128 0
519 -0.7071695963541685 0.0 -5.138871841430665 128 128 128 0
520 -0.7071695963541685 0.1 -5.338871841430664 128 128 128 0
521 -0.7071695963541685 0.1 -5.238871841430664 128 128 128 0
522 -0.7071695963541685 0.1 -5.138871841430665 128 128 128 0
523 -0.6071695963541686 -0.1 -5.338871841430664 128 128 128 0
524 -0.6071695963541686 -0.1 -5.238871841430664 128 128 128 0
525 -0.6071695963541686 -0.1 -5.138871841430665 128 128 128 0
526 -0.6071695963541686 0.0 -5.338871841430664 128 128 128 0
527 -0.6071695963541686 0.0 -5.238871841430664 128 128 128 0
528 -0.6071695963541686 0.0 -5.138871841430665 128 128 128 0
529 -0.6071695963541686 0.1 -5.338871841430664 128 128 128 0
530 -0.6071695963541686 0.1 -5.238871841430664 128 128 128 0
531 -0.6071695963541686 0.1 -5.138871841430665 128 128 128 0
532 -0.5071695963541686 -0.1 -5.338871841430664 128 128 128 0
533 -0.5071695963541686 -0.1 -5.238871841430664 128 128 128 0
534 -0.5071695963541686 -0.1 -5.138871841430665 128 128 128 0
535 -0.5071695963541686 0.0 -5.338871841430664 128 128 128 0
536 -0.5071695963541686 0.0 -5.238871841430664 128 128 128 0
537 -0.5071695963541686 0.0 -5.138871841430665 128 128 128 0
538 -0.5071695963541686 0.1 -5.338871841430664 128 128 128 0
539 -0.5071695963541686 0.1 -5.238871841430664 128 128 128 0
540 -0.5071695963541686 0.1 -5.138871841430665 128 128 128 0
541 -0.7071695963541685 -0.1 -5.061091944376627 128 128 128 0
542 -0.7071695963541685 -0.1 -4.961091944376627 128 128 128 0
543 -0.7071695963541685 -0.1 -4.861091944376628 128 128 128 0
544 -0.7071695963541685 0.0 -5.061091944376627 128 128 128 0
545 -0.7071695963541685 0.0 -4.961091944376627 128 128 128 0
546 -0.7071695963541685 0.0 -4.861091944376628 128 128 128 0
547 -0.7071695963541685 0.1 -5.061091944376627 128 128 128 0
548 -0.7071695963541685 0.1 -4.961091944376627 128 128 128 0
549 -0.7071695963541685 0.1 -4.861091944376628 128 128 128 0
550 -0.6071695963541686 -0.1 -5.061091944376627 128 128 128 0
551 -0.6071695963541686 -0.1 -4.961091944376627 128 128 128 0
552 -0.6071695963541686 -0.1 -4.861091944376628 128 128 128 0
553 -0.6071695963541686 0.0 -5.061091944376627 128 128 128 0
554 -0.6071695963541686 0.0 -4.961091944376627 128 128 128 0
555 -0.6071695963541686 0.0 -4.861091944376628 128 128 128 0
556 -0.6071695963541686 0.1 -5.061091944376627 128 128 128 0
557 -0.6071695963541686 0.1 -4.961091944376627 128 128 128 0
558 -0.6071695963541686 0.1 -4.861091944376628 128 128 128 0
559 -0.5071695963541686 -0.1 -5.061091944376627 128 128 128 0
560 -0.5071695963541686 -0.1 -4.961091944376627 128 128 128 0
561 -0.5071695963541686 -0.1 -4.861091944376628 128 128 128 0
562 -0.5071695963541686 0.0 -5.061091944376627 128 128 128 0
563 -0.5071695963541686 0.0 -4.961091944376627 128 128 128 0
564 -0.5071695963541686 0.0 -4.861091944376628 128 128 128 0
565 -0.5071695963541686 0.1 -5.061091944376627 128 128 128 0
566 -0.5071695963541686 0.1 -4.961091944376627 128 128 128 0
567 -0.5071695963541686 0.1 -4.861091944376628 128 128 128 0
568 -0.7071695963541685 -0.1 -4.811090037027994 128 128 128 0
569 -0.7071695963541685 -0.1 -4.7110900370279944 128 128 128 0
570 -0.7071695963541685 -0.1 -4.611090037027995 128 128 128 0
571 -0.7071695963541685 0.0 -4.811090037027994 128 128 128 0
572 -0.7071695963541685 0.0 -4.7110900370279944 128 128 128 0
573 -0.7071695963541685 0.0 -4.611090037027995 128 128 128 0
574 -0.7071695963541685 0.1 -4.811090037027994 128 128 128 0
575 -0.7071695963541685 0.1 -4.7110900370279944 128 128 128 0
576 -0.7071695963541685 0.1 -4.611090037027995 128 128 128 0
577 -0.6071695963541686 -0.1 -4.811090037027994 128 128 128 0
578 -0.6071695963541686 -0.1 -4.7110900370279944 128 128 128 0
579 -0.6071695963541686 -0.1 -4.611090037027995 128 128 128 0
580 -0.6071695963541686 0.0 -4.811090037027994 128 128 128 0
581 -0.6071695963541686 0.0 -4.7110900370279944 128 128 128 0
582 -0.6071695963541686 0.0 -4.611090037027995 128 128 128 0
583 -0.6071695963541686 0.1 -4.811090037027994 128 128 128 0
584 -0.6071695963541686 0.1 -4.7110900370279944 128 128 128 0
585 -0.6071695963541686 0.1 -4.611090037027995 128 128 128 0
586 -0.5071695963541686 -0.1 -4.811090037027994 128 128 128 0
587 -0.5071695963541686 -0.1 -4.7110900370279944 128 128 128 0
588 -0.5071695963541686 -0.1 -4.611090037027995 128 128 128 0
589 -0.5071695963541686 0.0 -4.811090037027994 128 128 128 0
590 -0.5071695963541686 0.0 -4.7110900370279944 128 128 128 0
591 -0.5071695963541686 0.0 -4.611090037027995 128 128 128 0
592 -0.5071695963541686 0.1 -4.811090037027994 128 128 128 0
593 -0.5071695963541686 0.1 -4.7110900370279944 128 128 128 0
594 -0.5071695963541686 0.1 -4.611090037027995 128 128 128 0
595 -0.7071695963541685 -0.1 -4.561088129679361 128 128 128 0
596 -0.7071695963541685 -0.1 -4.461088129679362 128 128 128 0
597 -0.7071695963541685 -0.1 -4.361088129679362 128 128 128 0
598 -0.7071695963541685 0.0 -4.561088129679361 128 128 128 0
599 -0.7071695963541685 0.0 -4.461088129679362 128 128 128 0
600 -0.7071695963541685 0.0 -4.361088129679362 128 128 128 0
601 -0.7071695963541685 0.1 -4.561088129679361 128 128 128 0
602 -0.7071695963541685 0.1 -4.461088129679362 128 128 128 0
603 -0.7071695963541685 0.1 -4.361088129679362 128 128 128 0
604 -0.6071695963541686 -0.1 -4.561088129679361 128 128 128 0
605 -0.6071695963541686 -0.1 -4.461088129679362 128 128 128 0
606 -0.6071695963541686 -0.1 -4.361088129679362 128 128 128 0
607 -0.6071695963541686 0.0 -4.561088129679361 128 128 128 0
608 -0.6071695963541686 0.0 -4.461088129679362 128 128 128 0
609 -0.6071695963541686 0.0 -4.361088129679362 128 128 128 0
610 -0.6071695963541686 0.1 -4.561088129679361 128 128 128 0
611 -0.6071695963541686 0.1 -4.461088129679362 128 128 128 0
612 -0.6071695963541686 0.1 -4.361088129679362 128 128 128 0
613 -0.5071695963541686 -0.1 -4.561088129679361 128 128 128 0
614 -0.5071695963541686 -0.1 -4.461088129679362 128 128 128 0
615 -0.5071695963541686 -0.1 -4.361088129679362 128 128 128 0
616 -0.5071695963541686 0.0 -4.561088129679361 128 128 128 0
617 -0.5071695963541686 0.0 -4.461088129679362 128 128 128 0
618 -0.5071695963541686 0.0 -4.361088129679362 128 128 128 0
619 -0.5071695963541686 0.1 -4.561088129679361 128 128 128 0
620 -0.5071695963541686 0.1 -4.461088129679362 128 128 128 0
621 -0.5071695963541686 0.1 -4.361088129679362 128 128 128 0
622 -0.7071695963541685 -0.1 -4.3110862223307285 128 128 128 0
623 -0.7071695963541685 -0.1 -4.211086222330729 128 128 128 0
624 -0.7071695963541685 -0.1 -4.111086222330729 128 128 128 0
625 -0.7071695963541685 0.0 -4.3110862223307285 128 128 128 0
626 -0.7071695963541685 0.0 -4.211086222330729 128 128 128 0
627 -0.7071695963541685 0.0 -4.111086222330729 128 128 128 0
628 -0.7071695963541685 0.1 -4.3110862223307285 128 128 128 0
629 -0.7071695963541685 0.1 -4.211086222330729 128 128 128 0
630 -0.7071695963541685 0.1 -4.111086222330729 128 128 128 0
631 -0.6071695963541686 -0.1 -4.3110862223307285 128 128 128 0
632 -0.6071695963541686 -0.1 -4.211086222330729 128 128 128 0
633 -0.6071695963541686 -0.1 -4.111086222330729 128 128 128 0
634 -0.6071695963541686 0.0 -4.3110862223307285 128 128 128 0
635 -0.6071695963541686 0.0 -4.211086222330729 128 128 128 0
636 -0.6071695963541686 0.0 -4.111086222330729 128 128 128 0
637 -0.6071695963541686 0.1 -4.3110862223307285 128 128 128 0
638 -0.6071695963541686 0.1 -4.211086222330729 128 128 128 0
639 -0.6071695963541686 0.1 -4.111086222330729 128 128 128 0
640 -0.5071695963541686 -0.1 -4.3110862223307285 128 128 128 0
641 -0.5071695963541686 -0.1 -4.211086222330729 128 128 128 0
642 -0.5071695963541686 -0.1 -4.111086222330729 128 128 128 0
643 -0.5071695963541686 0.0 -4.3110862223307285 128 128 128 0
644 -0.5071695963541686 0.0 -4.211086222330729 128 128 128 0
645 -0.5071695963541686 0.0 -4.111086222330729 128 128 128 0
646 -0.5071695963541686 0.1 -4.3110862223307285 128 128 128 0
647 -0.5071695963541686 0.1 -4.211086222330729 128 128 128 0
648 -0.5071695963541686 0.1 -4.111086222330729 128 128 128 0
649 -0.7071695963541685 -0.1 -4.061086222330729 128 128 128 0
650 -0.7071695963541685 -0.1 -3.9610862223307293 128 128 128 0
651 -0.7071695963541685 -0.1 -3.861086222330729 128 128 128 0
652 -0.7071695963541685 0.0 -4.061086222330729 128 128 128 0
653 -0.7071695963541685 0.0 -3.9610862223307293 128 128 128 0
654 -0.7071695963541685 0.0 -3.861086222330729 128 128 128 0
655 -0.7071695963541685 0.1 -4.061086222330729 128 128 128 0
656 -0.7071695963541685 0.1 -3.9610862223307293 128 128 128 0
657 -0.7071695963541685 0.1 -3.861086222330729 128 128 128 0
658 -0.6071695963541686 -0.1 -4.061086222330729 128 128 128 0
659 -0.6071695963541686 -0.1 -3.9610862223307293 128 128 128 0
660 -0.6071695963541686 -0.1 -3.861086222330729 128 128 128 0
661 -0.6071695963541686 0.0 -4.061086222330729 128 128 128 0
662 -0.6071695963541686 0.0 -3.9610862223307293 128 128 128 0
663 -0.6071695963541686 0.0 -3.861086222330729 128 128 128 0
664 -0.6071695963541686 0.1 -4.061086222330729 128 128 128 0
665 -0.6071695963541686 0.1 -3.9610862223307293 128 128 128 0
666 -0.6071695963541686 0.1 -3.861086222330729 128 128 128 0
667 -0.5071695963541686 -0.1 -4.061086222330729 128 128 128 0
668 -0.5071695963541686 -0.1 -3.9610862223307293 128 128 128 0
669 -0.5071695963541686 -0.1 -3.861086222330729 128 128 128 0
670 -0.5071695963541686 0.0 -4.061086222330729 128 128 128 0
671 -0.5071695963541686 0.0 -3.9610862223307293 128 128 128 0
672 -0.5071695963541686 0.0 -3.861086222330729 128 128 128 0
673 -0.5071695963541686 0.1 -4.061086222330729 128 128 128 0
674 -0.5071695963541686 0.1 -3.9610862223307293 128 128 128 0
675 -0.5071695963541686 0.1 -3.861086222330729 128 128 128 0
676 -0.7071695963541685 -0.1 -3.783309504191081 128 128 128 0
677 -0.7071695963541685 -0.1 -3.683309504191081 128 128 128 0
678 -0.7071695963541685 -0.1 -3.5833095041910807 128 128 128 0
679 -0.7071695963541685 0.0 -3.783309504191081 128 128 128 0
680 -0.7071695963541685 0.0 -3.683309504191081 128 128 128 0
681 -0.7071695963541685 0.0 -3.5833095041910807 128 128 128 0
682 -0.7071695963541685 0.1 -3.783309504191081 128 128 128 0
683 -0.7071695963541685 0.1 -3.683309504191081 128 128 128 0
684 -0.7071695963541685 0.1 -3.5833095041910807 128 128 128 0
685 -0.6071695963541686 -0.1 -3.783309504191081 128 128 128 0
686 -0.6071695963541686 -0.1 -3.683309504191081 128 128 128 0
687 -0.6071695963541686 -0.1 -3.5833095041910807 128 128 128 0
688 -0.6071695963541686 0.0 -3.783309504191081 128 128 128 0
689 -0.6071695963541686 0.0 -3.683309504191081 128 128 128 0
690 -0.6071695963541686 0.0 -3.5833095041910807 128 128 128 0
691 -0.6071695963541686 0.1 -3.783309504191081 128 128 128 0
692 -0.6071695963541686 0.1 -3.683309504191081 128 128 128 0
693 -0.6071695963541686 0.1 -3.5833095041910807 128 128 128 0
694 -0.5071695963541686 -0.1 -3.783309504191081 128 128 128 0
695 -0.5071695963541686 -0.1 -3.683309504191081 128 128 128 0
696 -0.5071695963541686 -0.1 -3.5833095041910807 128 128 128 0
697 -0.5071695963541686 0.0 -3.783309504191081 128 128 128 0
698 -0.5071695963541686 0.0 -3.683309504191081 128 128 128 0
699 -0.5071695963541686 0.0 -3.5833095041910807 128 128 128 0
700 -0.5071695963541686 0.1 -3.783309504191081 128 128 128 0
701 -0.5071695963541686 0.1 -3.683309504191081 128 128 128 0
702 -0.5071695963541686 0.1 -3.5833095041910807 128 128 128 0
703 -0.7071695963541685 -0.1 -3.5333104578653973 128 128 128 0
704 -0.7071695963541685 -0.1 -3.4333104578653972 128 128 128 0
705 -0.7071695963541685 -0.1 -3.333310457865397 128 128 128 0
706 -0.7071695963541685 0.0 -3.5333104578653973 128 128 128 0
707 -0.7071695963541685 0.0 -3.4333104578653972 128 128 128 0
708 -0.7071695963541685 0.0 -3.333310457865397 128 128 128 0
709 -0.7071695963541685 0.1 -3.5333104578653973 128 128 128 0
710 -0.7071695963541685 0.1 -3.4333104578653972 128 128 128 0
711 -0.7071695963541685 0.1 -3.333310457865397 128 128 128 0
712 -0.6071695963541686 -0.1 -3.5333104578653973 128 128 128 0
713 -0.6071695963541686 -0.1 -3.4333104578653972 128 128 128 0
714 -0.6071695963541686 -0.1 -3.333310457865397 128 128 128 0
715 -0.6071695963541686 0.0 -3.5333104578653973 128 128 128 0
716 -0.6071695963541686 0.0 -3.4333104578653972 128 128 128 0
717 -0.6071695963541686 0.0 -3.333310457865397 128 128 128 0
718 -0.6071695963541686 0.1 -3.5333104578653973 128 128 128 0
719 -0.6071695963541686 0.1 -3.4333104578653972 128 128 128 0
720 -0.6071695963541686 0.1 -3.333310457865397 128 128 128 0
721 -0.5071695963541686 -0.1 -3.5333104578653973 128 128 128 0
722 -0.5071695963541686 -0.1 -3.4333104578653972 128 128 128 0
723 -0.5071695963541686 -0.1 -3.333310457865397 128 128 128 0
724 -0.5071695963541686 0.0 -3.5333104578653973 128 128 128 0
725 -0.5071695963541686 0.0 -3.4333104578653972 128 128 128 0
726 -0.5071695963541686 0.0 -3.333310457865397 128 128 128 0
727 -0.5071695963541686 0.1 -3.5333104578653973 128 128 128 0
728 -0.5071695963541686 0.1 -3.4333104578653972 128 128 128 0
729 -0.5071695963541686 0.1 -3.333310457865397 128 128 128 0
730 -0.7071695963541685 -0.1 -3.2833114115397137 128 128 128 0
731 -0.7071695963541685 -0.1 -3.1833114115397136 128 128 128 0
732 -0.7071695963541685 -0.1 -3.0833114115397136 128 128 128 0
733 -0.7071695963541685 0.0 -3.2833114115397137 128 128 128 0
734 -0.7071695963541685 0.0 -3.1833114115397136 128 128 128 0
735 -0.7071695963541685 0.0 -3.0833114115397136 128 128 128 0
736 -0.7071695963541685 0.1 -3.2833114115397137 128 128 128 0
737 -0.7071695963541685 0.1 -3.1833114115397136 128 128 128 0
738 -0.7071695963541685 0.1 -3.0833114115397136 128 128 128 0
739 -0.6071695963541686 -0.1 -3.2833114115397137 128 128 128 0
740 -0.6071695963541686 -0.1 -3.1833114115397136 128 128 128 0
741 -0.6071695963541686 -0.1 -3.0833114115397136 128 128 128 0
742 -0.6071695963541686 0.0 -3.2833114115397137 128 128 128 0
743 -0.6071695963541686 0.0 -3.1833114115397136 128 128 128 0
744 -0.6071695963541686 0.0 -3.0833114115397136 128 128 128 0
745 -0.6071695963541686 0.1 -3.2833114115397137 128 128 128 0
746 -0.6071695963541686 0.1 -3.1833114115397136 128 128 128 0
747 -0.6071695963541686 0.1 -3.0833114115397136 128 128 128 0
748 -0.5071695963541686 -0.1 -3.2833114115397137 128 128 128 0
749 -0.5071695963541686 -0.1 -3.1833114115397136 128 128 128 0
750 -0.5071695963541686 -0.1 -3.0833114115397136 128 128 128 0
751 -0.5071695963541686 0.0 -3.2833114115397137 128 128 128 0
752 -0.5071695963541686 0.0 -3.1833114115397136 128 128 128 0
753 -0.5071695963541686 0.0 -3.0833114115397136 128 128 128 0
754 -0.5071695963541686 0.1 -3.2833114115397137 128 128 128 0
755 -0.5071695963541686 0.1 -3.1833114115397136 128 128 128 0
756 -0.5071695963541686 0.1 -3.0833114115397136 128 128 128 0
757 -0.7071695963541685 -0.1 -3.03331236521403 128 128 128 0
758 -0.7071695963541685 -0.1 -2.93331236521403 128 128 128 0
759 -0.7071695963541685 -0.1 -2.83331236521403 128 128 128 0
760 -0.7071695963541685 0.0 -3.03331236521403 128 128 128 0
761 -0.7071695963541685 0.0 -2.93331236521403 128 128 128 0
762 -0.7071695963541685 0.0 -2.83331236521403 128 128 128 0
763 -0.7071695963541685 0.1 -3.03331236521403 128 128 128 0
764 -0.7071695963541685 0.1 -2.93331236521403 128 128 128 0
765 -0.7071695963541685 0.1 -2.83331236521403 128 128 128 0
766 -0.6071695963541686 -0.1 -3.03331236521403 128 128 128 0
767 -0.6071695963541686 -0.1 -2.93331236521403 128 128 128 0
768 -0.6071695963541686 -0.1 -2.83331236521403 128 128 128 0
769 -0.6071695963541686 0.0 -3.03331236521403 128 128 128 0
770 -0.6071695963541686 0.0 -2.93331236521403 128 128 128 0
771 -0.6071695963541686 0.0 -2.83331236521403 128 128 128 0
772 -0.6071695963541686 0.1 -3.03331236521403 128 128 128 0
773 -0.6071695963541686 0.1 -2.93331236521403 128 128 128 0
774 -0.6071695963541686 0.1 -2.83331236521403 128 128 128 0
775 -0.5071695963541686 -0.1 -3.03331236521403 128 128 128 0
776 -0.5071695963541686 -0.1 -2.93331236521403 128 128 128 0
777 -0.5071695963541686 -0.1 -2.83331236521403 128 128 128 0
778 -0.5071695963541686 0.0 -3.03331236521403 128 128 128 0
779 -0.5071695963541686 0.0 -2.93331236521403 128 128 128 0
780 -0.5071695963541686 0.0 -2.83331236521403 128 128 128 0
781 -0.5071695963541686 0.1 -3.03331236521403 128 128 128 0
782 -0.5071695963541686 0.1 -2.93331236521403 128 128 128 0
783 -0.5071695963541686 0.1 -2.83331236521403 128 128 128 0
784 -0.7071695963541685 -0.1 -2.7833133188883465 128 128 128 0
785 -0.7071695963541685 -0.1 -2.6833133188883465 128 128 128 0
786 -0.7071695963541685 -0.1 -2.5833133188883464 128 128 128 0
787 -0.7071695963541685 0.0 -2.7833133188883465 128 128 128 0
788 -0.7071695963541685 0.0 -2.6833133188883465 128 128 128 0
789 -0.7071695963541685 0.0 -2.5833133188883464 128 128 128 0
790 -0.7071695963541685 0.1 -2.7833133188883465 128 128 128 0
791 -0.7071695963541685 0.1 -2.6833133188883465 128 128 128 0
792 -0.7071695963541685 0.1 -2.5833133188883464 128 128 128 0
793 -0.6071695963541686 -0.1 -2.7833133188883465 128 128 128 0
794 -0.6071695963541686 -0.1 -2.6833133188883465 128 128 128 0
795 -0.6071695963541686 -0.1 -2.5833133188883464 128 128 128 0
796 -0.6071695963541686 0.0 -2.7833133188883465 128 128 128 0
797 -0.6071695963541686 0.0 -2.6833133188883465 128 128 128 0
798 -0.6071695963541686 0.0 -2.5833133188883464 128 128 128 0
799 -0.6071695963541686 0.1 -2.7833133188883465 128 128 128 0
800 -0.6071695963541686 0.1 -2.6833133188883465 128 128 128 0
801 -0.6071695963541686 0.1 -2.5833133188883464 128 128 128 0
802 -0.5071695963541686 -0.1 -2.7833133188883465 128 128 128 0
803 -0.5071695963541686 -0.1 -2.6833133188883465 128 128 128 0
804 -0.5071695963541686 -0.1 -2.5833133188883464 128 128 128 0
805 -0.5071695963541686 0.0 -2.7833133188883465 128 128 128 0
806 -0.5071695963541686 0.0 -2.6833133188883465 128 128 128 0
807 -0.5071695963541686 0.0 -2.5833133188883464 128 128 128 0
808 -0.5071695963541686 0.1 -2.7833133188883465 128 128 128 0
809 -0.5071695963541686 0.1 -2.6833133188883465 128 128 128 0
810 -0.5071695963541686 0.1 -2.5833133188883464 128 128 128 0
811 -0.7071695963541685 -0.1 -2.505536600748698 128 128 128 0
812 -0.7071695963541685 -0.1 -2.405536600748698 128 128 128 0
813 -0.7071695963541685 -0.1 -2.305536600748698 128 128 128 0
814 -0.7071695963541685 0.0 -2.505536600748698 128 128 128 0
815 -0.7071695963541685 0.0 -2.405536600748698 128 128 128 0
816 -0.7071695963541685 0.0 -2.305536600748698 128 128 128 0
817 -0.7071695963541685 0.1 -2.505536600748698 128 128 128 0
818 -0.7071695963541685 0.1 -2.405536600748698 128 128 128 0
819 -0.7071695963541685 0.1 -2.305536600748698 128 128 128 0
820 -0.6071695963541686 -0.1 -2.505536600748698 128 128 128 0
821 -0.6071695963541686 -0.1 -2.405536600748698 128 128 128 0
822 -0.6071695963541686 -0.1 -2.305536600748698 128 128 128 0
823 -0.6071695963541686 0.0 -2.505536600748698 128 128 128 0
824 -0.6071695963541686 0.0 -2.405536600748698 128 128 128 0
825 -0.6071695963541686 0.0 -2.305536600748698 128 128 128 0
826 -0.6071695963541686 0.1 -2.505536600748698 128 128 128 0
827 -0.6071695963541686 0.1 -2.405536600748698 128 128 128 0
828 -0.6071695963541686 0.1 -2.305536600748698 128 128 128 0
829 -0.5071695963541686 -0.1 -2.505536600748698 128 128 128 0
830 -0.5071695963541686 -0.1 -2.405536600748698 128 128 128 0
831 -0.5071695963541686 -0.1 -2.305536600748698 128 128 128 0
832 -0.5071695963541686 0.0 -2.505536600748698 128 128 128 0
833 -0.5071695963541686 0.0 -2.405536600748698 128 128 128 0
834 -0.5071695963541686 0.0 -2.305536600748698 128 128 128 0
835 -0.5071695963541686 0.1 -2.505536600748698 128 128 128 0
836 -0.5071695963541686 0.1 -2.405536600748698 128 128 128 0
837 -0.5071695963541686 0.1 -2.305536600748698 128 128 128 0
838 -0.7071695963541685 -0.1 -2.2555375544230145 128 128 128 0
839 -0.7071695963541685 -0.1 -2.1555375544230144 128 128 128 0
840 -0.7071695963541685 -0.1 -2.0555375544230143 128 128 128 0
841 -0.7071695963541685 0.0 -2.2555375544230145 128 128 128 0
842 -0.7071695963541685 0.0 -2.1555375544230144 128 128 128 0
843 -0.7071695963541685 0.0 -2.0555375544230143 128 128 128 0
844 -0.7071695963541685 0.1 -2.2555375544230145 128 128 128 0
845 -0.7071695963541685 0.1 -2.1555375544230144 128 128 128 0
846 -0.7071695963541685 0.1 -2.0555375544230143 128 128 128 0
847 -0.6071695963541686 -0.1 -2.2555375544230145 128 128 128 0
848 -0.6071695963541686 -0.1 -2.1555375544230144 128 128 128 0
849 -0.6071695963541686 -0.1 -2.0555375544230143 128 128 128 0
850 -0.6071695963541686 0.0 -2.2555375544230145 128 128 128 0
851 -0.6071695963541686 0.0 -2.1555375544230144 128 128 128 0
852 -0.6071695963541686 0.0 -2.0555375544230143 128 128 128 0
853 -0.6071695963541686 0.1 -2.2555375544230145 128 128 128 0
854 -0.6071695963541686 0.1 -2.1555375544230144 128 128 128 0
855 -0.6071695963541686 0.1 -2.0555375544230143 128 128 128 0
856 -0.5071695963541686 -0.1 -2.2555375544230145 128 128 128 0
857 -0.5071695963541686 -0.1 -2.1555375544230144 128 128 128 0
858 -0.5071695963541686 -0.1 -2.0555375544230143 128 128 128 0
859 -0.5071695963541686 0.0 -2.2555375544230145 128 128 128 0
860 -0.5071695963541686 0.0 -2.1555375544230144 128 128 128 0
861 -0.5071695963541686 0.0 -2.0555375544230143 128 128 128 0
862 -0.5071695963541686 0.1 -2.2555375544230145 128 128 128 0
863 -0.5071695963541686 0.1 -2.1555375544230144 128 128 128 0
864 -0.5071695963541686 0.1 -2.0555375544230143 128 128 128 0
865 -0.7071695963541685 -0.1 -2.0055385080973305 128 128 128 0
866 -0.7071695963541685 -0.1 -1.9055385080973306 128 128 128 0
867 -0.7071695963541685 -0.1 -1.8055385080973305 128 128 128 0
868 -0.7071695963541685 0.0 -2.0055385080973305 128 128 128 0
869 -0.7071695963541685 0.0 -1.9055385080973306 128 128 128 0
870 -0.7071695963541685 0.0 -1.8055385080973305 128 128 128 0
871 -0.7071695963541685 0.1 -2.0055385080973305 128 128 128 0
872 -0.7071695963541685 0.1 -1.9055385080973306 128 128 128 0
873 -0.7071695963541685 0.1 -1.8055385080973305 128 128 128 0
874 -0.6071695963541686 -0.1 -2.0055385080973305 128 128 128 0
875 -0.6071695963541686 -0.1 -1.9055385080973306 128 128 128 0
876 -0.6071695963541686 -0.1 -1.8055385080973305 128 128 128 0
877 -0.6071695963541686 0.0 -2.0055385080973305 128 128 128 0
878 -0.6071695963541686 0.0 -1.9055385080973306 128 128 128 0
879 -0.6071695963541686 0.0 -1.8055385080973305 128 128 128 0
880 -0.6071695963541686 0.1 -2.0055385080973305 128 128 128 0
881 -0.6071695963541686 0.1 -1.9055385080973306 128 128 128 0
882 -0.6071695963541686 0.1 -1.8055385080973305 128 128 128 0
883 -0.5071695963541686 -0.1 -2.0055385080973305 128 128 128 0
884 -0.5071695963541686 -0.1 -1.9055385080973306 128 128 128 0
885 -0.5071695963541686 -0.1 -1.8055385080973305 128 128 128 0
886 -0.5071695963541686 0.0 -2.0055385080973305 128 128 128 0
887 -0.5071695963541686 0.0 -1.9055385080973306 128 128 128 0
888 -0.5071695963541686 0.0 -1.8055385080973305 128 128 128 0
889 -0.5071695963541686 0.1 -2.0055385080973305 128 128 128 0
890 -0.5071695963541686 0.1 -1.9055385080973306 128 128 128 0
891 -0.5071695963541686 0.1 -1.8055385080973305 128 128 128 0
892 -0.7071695963541685 -0.1 -1.755539461771647 128 128 128 0
893 -0.7071695963541685 -0.1 -1.655539461771647 128 128 128 0
894 -0.7071695963541685 -0.1 -1.555539461771647 128 128 128 0
895 -0.7071695963541685 0.0 -1.755539461771647 128 128 128 0
896 -0.7071695963541685 0.0 -1.655539461771647 128 128 128 0
897 -0.7071695963541685 0.0 -1.555539461771647 128 128 128 0
898 -0.7071695963541685 0.1 -1.755539461771647 128 128 128 0
899 -0.7071695963541685 0.1 -1.655539461771647 128 128 128 0
900 -0.7071695963541685 0.1 -1.555539461771647 128 128 128 0
901 -0.6071695963541686 -0.1 -1.755539461771647 128 128 128 0
902 -0.6071695963541686 -0.1 -1.655539461771647 128 128 128 0
903 -0.6071695963541686 -0.1 -1.555539461771647 128 128 128 0
904 -0.6071695963541686 0.0 -1.755539461771647 128 128 128 0
905 -0.6071695963541686 0.0 -1.655539461771647 128 128 128 0
906 -0.6071695963541686 0.0 -1.555539461771647 128 128 128 0
907 -0.6071695963541686 0.1 -1.755539461771647 128 128 128 0
908 -0.6071695963541686 0.1 -1.655539461771647 128 128 128 0
909 -0.6071695963541686 0.1 -1.555539461771647 128 128 128 0
910 -0.5071695963541686 -0.1 -1.755539461771647 128 128 128 0
911 -0.5071695963541686 -0.1 -1.655539461771647 128 128 128 0
912 -0.5071695963541686 -0.1 -1.555539461771647 128 128 128 0
913 -0.5071695963541686 0.0 -1.755539461771647 128 128 128 0
914 -0.5071695963541686 0.0 -1.655539461771647 128 128 128 0
915 -0.5071695963541686 0.0 -1.555539461771647 128 128 128 0
916 -0.5071695963541686 0.1 -1.755539461771647 128 128 128 0
917 -0.5071695963541686 0.1 -1.655539461771647 128 128 128 0
918 -0.5071695963541686 0.1 -1.555539461771647 128 128 128 0
919 -0.7071695963541685 -0.1 -1.5055400975545248 128 128 128 0
920 -0.7071695963541685 -0.1 -1.4055400975545247 128 128 128 0
921 -0.7071695963541685 -0.1 -1.3055400975545246 128 128 128 0
922 -0.7071695963541685 0.0 -1.5055400975545248 128 128 128 0
923 -0.7071695963541685 0.0 -1.4055400975545247 128 128 128 0
924 -0.7071695963541685 0.0 -1.3055400975545246 128 128 128 0
925 -0.7071695963541685 0.1 -1.5055400975545248 128 128 128 0
926 -0.7071695963541685 0.1 -1.4055400975545247 128 128 128 0
927 -0.7071695963541685 0.1 -1.3055400975545246 128 128 128 0
928 -0.6071695963541686 -0.1 -1.5055400975545248 128 128 128 0
929 -0.6071695963541686 -0.1 -1.4055400975545247 128 128 128 0
930 -0.6071695963541686 -0.1 -1.3055400975545246 128 128 128 0
931 -0.6071695963541686 0.0 -1.5055400975545248 128 128 128 0
932 -0.6071695963541686 0.0 -1.4055400975545247 128 128 128 0
933 -0.6071695963541686 0.0 -1.3055400975545246 128 128 128 0
934 -0.6071695963541686 0.1 -1.5055400975545248 128 128 128 0
935 -0.6071695963541686 0.1 -1.4055400975545247 128 128 128 0
936 -0.6071695963541686 0.1 -1.3055400975545246 128 128 128 0
937 -0.5071695963541686 -0.1 -1.5055400975545248 128 128 128 0
938 -0.5071695963541686 -0.1 -1.4055400975545247 128 128 128 0
939 -0.5071695963541686 -0.1 -1.3055400975545246 128 128 128 0
940 -0.5071695963541686 0.0 -1.5055400975545248 128 128 128 0
941 -0.5071695963541686 0.0 -1.4055400975545247 128 128 128 0
942 -0.5071695963541686 0.0 -1.3055400975545246 128 128 128 0
